45.728119 -54.964287 74.541931 0.821873 -0.099459 -0.149693 -0.540578
45.444164 -55.080704 74.544144 0.832487 -0.096253 -0.151265 -0.524232
44.901020 -55.338856 74.548683 0.852260 -0.090131 -0.155444 -0.491290
44.628666 -55.485954 74.550255 0.862023 -0.086866 -0.157379 -0.473922
44.102982 -55.810539 74.554756 0.880457 -0.080905 -0.161301 -0.438443
43.853333 -55.986408 74.557335 0.889000 -0.078055 -0.163156 -0.420674
43.372547 -56.372044 74.563614 0.905152 -0.071717 -0.166238 -0.384605
43.145210 -56.580170 74.567505 0.912669 -0.068244 -0.167717 -0.366401
42.716938 -57.025166 74.572968 0.926813 -0.061200 -0.169581 -0.329416
42.517475 -57.260269 74.573914 0.933276 -0.057284 -0.170735 -0.310749
42.145664 -57.754139 74.576302 0.945134 -0.050421 -0.172649 -0.272711
41.974594 -58.011997 74.577873 0.950421 -0.047301 -0.173886 -0.253429
41.661938 -58.549160 74.581009 0.959832 -0.040299 -0.176087 -0.214691
41.522270 -58.825108 74.582558 0.963998 -0.036450 -0.176686 -0.195351
41.278606 -59.397026 74.586708 0.971059 -0.029133 -0.178556 -0.155926
41.175266 -59.688416 74.588692 0.974069 -0.025491 -0.178904 -0.136137
41.005760 -60.285690 74.591232 0.978860 -0.018486 -0.179569 -0.096154
40.940163 -60.587143 74.592003 0.980620 -0.014718 -0.179832 -0.076343
40.846260 -61.194046 74.593552 0.982927 -0.007285 -0.180103 -0.036923
40.817814 -61.501179 74.593704 0.983446 -0.003562 -0.180369 -0.016996
40.796524 -62.123661 74.591621 0.983416 0.003596 -0.179800 0.023498
40.804802 -62.431519 74.590073 0.982710 0.007334 -0.179828 0.043457
40.859623 -63.047981 74.585670 0.979952 0.014683 -0.180371 0.083331
40.906601 -63.355503 74.582047 0.978022 0.018290 -0.180162 0.103345
41.040985 -63.959885 74.573814 0.973000 0.025837 -0.179169 0.143182
41.128975 -64.258415 74.569878 0.969870 0.029698 -0.178546 0.163072
41.340889 -64.840904 74.563751 0.962574 0.036634 -0.176238 0.202606
41.463821 -65.123367 74.562149 0.958273 0.040270 -0.175251 0.222212
41.740627 -65.674004 74.559029 0.948413 0.046908 -0.173341 0.261278
41.894295 -65.941452 74.557907 0.942832 0.050265 -0.172568 0.280646
42.230232 -66.460136 74.556351 0.930607 0.057278 -0.170261 0.318907
42.419178 -66.717308 74.555794 0.923617 0.061009 -0.169514 0.338340
42.817226 -67.195694 74.555817 0.908818 0.068838 -0.167496 0.375841
43.030205 -67.420593 74.555832 0.900844 0.072334 -0.166272 0.394463
43.492546 -67.845116 74.556755 0.883462 0.078994 -0.163309 0.431955
43.733894 -68.037888 74.557510 0.874422 0.082295 -0.161248 0.450125
44.242603 -68.393585 74.559052 0.855258 0.088628 -0.156624 0.485950
44.505596 -68.555183 74.559814 0.845126 0.091630 -0.154376 0.503522
45.048466 -68.848450 74.561569 0.823649 0.097711 -0.150595 0.537937
45.324764 -68.978172 74.563118 0.812435 0.100968 -0.149094 0.554549
45.896046 -69.208481 74.567467 0.788858 0.107188 -0.145175 0.587484
46.188362 -69.305885 74.569817 0.776557 0.110306 -0.143244 0.603550
46.787006 -69.463898 74.574547 0.750939 0.116155 -0.138750 0.635096
47.089703 -69.522369 74.577087 0.737704 0.119106 -0.136426 0.650381
47.704960 -69.600685 74.580719 0.710203 0.124367 -0.130866 0.680455
48.016430 -69.620132 74.581497 0.695900 0.126898 -0.128050 0.695142
48.637817 -69.623131 74.582619 0.666487 0.131612 -0.122190 0.723562
48.946201 -69.606178 74.582520 0.651326 0.134591 -0.119534 0.737137
49.558510 -69.535568 74.581001 0.620036 0.140363 -0.114401 0.763391
49.867874 -69.479507 74.579727 0.603680 0.142635 -0.111978 0.776328
50.462036 -69.330246 74.575478 0.571496 0.146639 -0.105869 0.800426
50.755360 -69.236000 74.571861 0.555083 0.148513 -0.102297 0.812011
51.334473 -69.010193 74.562874 0.521104 0.151808 -0.095895 0.834392
51.613255 -68.882362 74.558678 0.503912 0.153774 -0.092785 0.844877
52.165131 -68.592300 74.551437 0.468341 0.157568 -0.086269 0.865093
52.433910 -68.431137 74.549286 0.450153 0.159600 -0.082883 0.874655
52.948212 -68.079620 74.547775 0.413161 0.163820 -0.076431 0.892535
53.195007 -67.888306 74.548363 0.394331 0.165391 -0.072938 0.901016
53.659092 -67.476257 74.551407 0.356422 0.168390 -0.066365 0.916627
53.878422 -67.254707 74.552971 0.337235 0.169437 -0.062853 0.923912
54.285042 -66.786308 74.556091 0.298797 0.171597 -0.055577 0.937116
54.483810 -66.525978 74.558281 0.278339 0.172457 -0.051921 0.943446
54.689865 -66.230179 74.561577 0.255690 0.173539 -0.047482 0.949870
54.934105 -65.835831 74.567192 0.226207 0.175304 -0.042197 0.957245
55.281364 -65.164925 74.575058 0.177682 0.177183 -0.033656 0.967420
55.406059 -64.878136 74.576454 0.157522 0.177709 -0.029848 0.970935
55.620457 -64.283623 74.578056 0.116645 0.179430 -0.022204 0.976579
55.707142 -63.985867 74.578835 0.096482 0.179943 -0.018483 0.978759
55.841812 -63.375488 74.579185 0.055744 0.180556 -0.010699 0.981925
55.888744 -63.065941 74.578491 0.035243 0.180618 -0.007297 0.982895
55.945179 -62.448856 74.574669 0.005282 -0.179723 0.000179 -0.983703
55.954147 -62.142387 74.571686 0.025244 -0.179968 -0.003741 -0.983341
55.938568 -61.531548 74.563255 0.065001 -0.179892 -0.011191 -0.981473
55.912392 -61.228767 74.558693 0.084793 -0.180216 -0.014811 -0.979853
55.821148 -60.622776 74.552315 0.124518 -0.180143 -0.022192 -0.975475
55.755508 -60.323372 74.550827 0.144277 -0.179577 -0.025688 -0.972767
55.583855 -59.731873 74.548882 0.183539 -0.177499 -0.033015 -0.966291
55.479862 -59.442772 74.547325 0.202953 -0.176219 -0.036380 -0.962514
55.237007 -58.874966 74.544220 0.241792 -0.174140 -0.043488 -0.953583
55.100956 -58.599651 74.542671 0.261004 -0.173179 -0.047205 -0.948503
54.798447 -58.064461 74.539604 0.299257 -0.171783 -0.054066 -0.937023
54.632542 -57.806229 74.537643 0.318121 -0.170866 -0.057663 -0.930741
54.271721 -57.311127 74.533691 0.355465 -0.168500 -0.064837 -0.917087
54.072163 -57.070210 74.532738 0.374356 -0.167429 -0.067928 -0.909511
53.653763 -56.625591 74.532394 0.410571 -0.164783 -0.074728 -0.893696
53.428337 -56.415371 74.533043 0.428526 -0.163380 -0.078044 -0.885201
52.961933 -56.030674 74.534904 0.463227 -0.159371 -0.084229 -0.867714
52.709511 -55.847343 74.536469 0.480860 -0.157447 -0.087266 -0.858119
52.449482 -55.674232 74.537491 0.498283 -0.155762 -0.090301 -0.848114
51.921814 -55.364048 74.541145 0.531785 -0.151575 -0.096536 -0.827594
51.371346 -55.094814 74.547134 0.564541 -0.147995 -0.102617 -0.805519
51.088909 -54.976562 74.550240 0.580555 -0.146140 -0.105764 -0.793986
50.511517 -54.775146 74.557449 0.611655 -0.141891 -0.112159 -0.770172
50.220009 -54.693813 74.560440 0.626710 -0.139820 -0.114996 -0.757932
49.626194 -54.568771 74.565033 0.656352 -0.135100 -0.120198 -0.732464
49.327953 -54.525845 74.567314 0.670692 -0.132442 -0.122770 -0.719416
49.021526 -54.494686 74.569084 0.685078 -0.129965 -0.124982 -0.705802
48.419155 -54.469837 74.571480 0.712332 -0.124801 -0.129682 -0.678373
48.114624 -54.474792 74.572258 0.725653 -0.122122 -0.132120 -0.664123
47.506893 -54.522541 74.572380 0.751275 -0.117348 -0.137516 -0.634748
46.907738 -54.619610 74.570396 0.775682 -0.112023 -0.142010 -0.604649
46.609901 -54.687206 74.568382 0.787523 -0.109050 -0.143997 -0.589220
46.021973 -54.858231 74.563736 0.810375 -0.102605 -0.147639 -0.557644
45.727459 -54.963417 74.560684 0.821486 -0.099500 -0.149877 -0.541108
45.442280 -55.077705 74.557594 0.832086 -0.096661 -0.151930 -0.524603
44.886230 -55.337822 74.550468 0.852382 -0.090516 -0.155810 -0.490892
44.616158 -55.484207 74.547707 0.862031 -0.087606 -0.157689 -0.473669
44.092247 -55.810005 74.542877 0.880345 -0.081162 -0.161237 -0.438643
43.834568 -55.993099 74.539703 0.889163 -0.077687 -0.162907 -0.420493
43.354351 -56.382938 74.532127 0.905282 -0.070920 -0.166379 -0.384385
43.127014 -56.591953 74.528259 0.912899 -0.067556 -0.167582 -0.366017
42.697163 -57.042137 74.522423 0.927150 -0.060971 -0.169972 -0.328305
42.499027 -57.277767 74.520943 0.933615 -0.057458 -0.171018 -0.309539
